ply
format ascii 1.0
comment PCL generated
element vertex 713
property float x
property float y
property float z
property uchar red
property uchar green
property uchar blue
end_header
-73.96776797640318 -78.52336968295883 -312.3520833830395 100 105 102
255.43664809633887 -109.79646574245109 -632.6520401042068 103 109 102
252.42058311227746 98.5662970989589 -675.4168693717982 92 92 92
3.9779605719167392 117.38148170158632 -440.01670435619883 93 92 94
4.234914512413269 103.31121163196111 -445.83018452700423 90 98 102
225.1846108305483 146.14739165511705 -704.0222726096289 92 92 92
257.15547660951574 138.15421387158125 -651.6053731323693 91 91 91
-23.528239465700295 117.53887829623503 -387.02041681638116 90 90 90
-0.10525685789932027 122.82394273707975 -430.10233043774014 87 87 87
265.7030993489123 165.25358989411382 -629.3955850754264 86 86 86
56.641678248871926 122.87835853020385 -383.0036867139044 107 110 113
-23.456265626953524 125.1141406582214 -414.84983919938253 88 88 88
0.10893555596788929 131.6139215242673 -396.80182831011297 85 85 85
258.16590443927714 145.73499250619642 -521.6762658414042 85 85 85
-67.58065521736624 29.009858538749224 -836.3998948889894 91 243 209
-60.70795138262494 31.807660252724176 -897.6571127696484 91 172 182
214.0722900794924 101.25651908288368 -657.5124493636442 94 94 94
-8.106144560061011 66.01909928737385 -314.2819887086331 91 91 91
147.71399931323833 106.16440535713298 -768.977387126673 95 105 111
240.04807970597918 96.06672751941466 -599.9956037339889 89 93 95
234.75098036749563 109.9662586619902 -713.8362172909011 91 97 98
249.76890204063503 100.93168653204202 -659.5396757801968 91 91 92
136.61539142328343 81.61755225370625 -511.9097347193051 89 103 109
62.009470274676715 74.66757639851132 -445.46249460815864 87 100 104
80.04902408861382 37.2209225250385 -580.7369785442717 50 173 173
18.108112720612382 84.38113197840397 -390.2071510427426 89 92 94
0.10000845482070986 57.329016392688175 -559.7118532203423 92 105 108
255.98043525953628 100.22332180420044 -658.8514311941201 90 90 90
237.26409124114002 99.20785527558114 -725.4783479900084 92 95 98
224.35771958418317 97.54459068555116 -668.3942188587224 88 95 97
259.05790576963454 94.03489357087855 -574.085451490505 86 86 86
255.37762959762247 95.287259737586 -678.4094814555209 89 89 89
244.89636535901064 101.44724664567778 -670.9227652881425 90 92 94
233.99700251930415 105.13201309986101 -696.243524538663 90 98 101
61.32054481895118 88.37301098477747 -745.2596685823285 99 167 171
237.52642032161089 105.46642313477935 -708.6365028801904 91 95 98
238.34092231941725 101.57615419719937 -638.5605732248328 92 95 93
221.03446368114368 101.05098568660637 -676.136867582532 89 95 102
-52.283964880889 127.51296137276282 -787.9248797552077 94 94 95
-62.360929049419525 57.71643566272003 -547.169067053748 93 103 106
252.73674157083235 93.9710426301053 -619.9846470809398 89 89 90
114.0492564882072 55.61172431628728 -378.20771045978074 83 101 112
235.21531727844558 102.90922557792783 -684.9068208069714 92 93 94
255.85835257211465 103.47478062960963 -641.2775440115995 90 90 90
76.95893634741296 63.89355801483876 -495.94362622143194 73 106 140
-222.1962331010621 162.29632004603246 -595.1106042936613 90 90 90
210.39512921091963 106.86245500620011 -682.830992812424 91 92 96
261.1892051472548 122.07664890783585 -656.2914250334463 89 89 89
230.66083650998144 113.01363535157603 -695.0598853152178 92 94 95
258.56740225085804 103.06826520469286 -582.3863907493779 89 89 89
254.84697118964482 81.7559945223484 -597.6709071678292 90 90 90
233.00077357196562 80.33424335396082 -571.3791220937359 91 92 94
-67.70908250401251 12.859126668669267 -507.293769044403 96 105 103
-71.25182580683223 -40.54289455030146 -1186.614492715869 162 170 180
23.390826862655402 9.528664887169793 -663.0634153169688 95 115 146
-103.10010605308018 -26.2126469736267 -1152.454386908758 115 223 243
-106.69978815390364 -48.63758173498527 -1043.0181956067856 58 173 199
-30.235550393443447 2.21218963400489 -498.56869848072233 90 101 112
-82.61733760678894 -61.6812480052334 -1005.2728766228495 23 218 255
-207.52955485546119 -14.364067991597313 -553.6784173191842 95 97 98
-12.658713599402404 -27.94392107337195 -656.5494111736913 118 112 126
66.67675150647796 -154.43194253507212 -386.82694289147264 93 93 93
66.72605390621312 -67.16775786986776 -502.2891267813959 153 104 78
-111.11992559340594 -150.50143347613704 -1056.3013405789384 123 113 96
-281.58499561594743 -140.18440286296104 -684.7748897573751 100 107 102
301.95078631732054 -293.48865299369146 -1246.2786073422728 115 122 111
-449.2982419740343 -298.566788078733 -903.4221870670691 98 101 101
140.17788764807867 -99.39257419294842 -687.2660878839749 171 109 84
38.120910845659864 -40.812658007041634 -527.2250837476256 90 93 97
-295.79675877085833 -234.38004367514492 -706.7966967431274 102 116 111
-164.3173708004991 -172.0686250696727 -1084.0252957886796 110 107 98
97.72152854706272 -27.593783547545776 -356.41319251390485 89 89 89
-320.0666480768068 -232.2785130528244 -770.5677754156818 104 107 104
126.02074822738473 -99.76255558526236 -647.714783713554 109 136 123
262.2875077172091 -35.485862689972954 -612.3952703187717 87 87 87
46.27100002102328 -96.40808468575717 -611.8896315899051 130 128 112
308.2827362147398 -143.14150033304955 -631.4332284162565 107 106 99
-196.8337152293997 -98.18054942091366 -676.322186650464 111 117 122
61.60987011692313 -48.48473901701679 -593.2269866970432 75 147 167
123.30602415773214 -40.285277418852175 -512.5041704328592 109 125 130
-341.49965289850996 -174.08263996938814 -613.3698703728297 96 100 99
-336.96293938315387 -232.40944755569728 -759.0710401795895 105 103 102
247.02016682487076 -78.61254562711744 -724.489205394839 101 104 106
-405.068121226991 -193.12229814184474 -660.509584085608 94 97 96
-276.70956674899355 -179.62244439845438 -793.5345148734461 106 124 108
42.943778839837265 -2.0108968892857026 -567.4333598343178 51 172 172
-304.436307420822 -204.12528447231165 -634.9688691998697 104 110 111
29.14624413662729 -27.690477785408998 -554.0328721473425 145 105 84
-345.1553984800864 -214.45614492973 -741.7988278550245 105 111 100
270.02132768490014 -47.025394609954574 -605.0005061340419 86 86 86
174.17382759446355 -54.2096692880902 -580.3163147826256 115 149 158
15.701746717131456 -31.363220405397637 -588.6385736705995 123 110 90
204.33166969553233 -26.837079578953954 -442.2228763258312 158 158 152
101.06803474339704 39.74280087055096 -355.5415675899716 88 88 88
-418.1721582092991 -202.59734042827571 -673.924094427926 94 95 94
-416.3293167143925 -215.8734306794815 -701.4238603458272 94 97 96
161.99021067242415 -38.506472921968054 -428.3089989436756 109 146 157
-384.3364830412948 -180.47390152609512 -613.0551362227625 93 94 95
119.10199924555268 -29.97926294162365 -425.2600470419617 157 157 158
-62.69378002672812 40.60950172312844 -853.8768720486121 64 177 177
-19.3510837003858 -9.245681770461353 -394.02287588795326 92 100 104
165.727956977568 263.11806464948336 -826.0568697459275 90 93 96
250.04566443957467 242.12458751272567 -769.780393335157 88 88 88
112.35026934036868 195.80849689961488 -583.4963462636589 127 133 131
151.0860291212262 248.34340096095966 -778.0429392756134 93 93 93
242.11691404716436 226.8991329633045 -712.2659526453403 88 88 88
243.97725733420395 239.11277535122085 -755.2645412162514 87 87 87
179.79157210986077 275.0560604792362 -866.1791524947316 88 95 97
168.79952816967267 263.6009638829861 -791.7961269132134 91 91 90
201.92413449053737 267.2206584624471 -841.7643217369978 89 89 89
241.1426414298998 267.7526133437299 -822.3783715746627 87 87 87
212.05482180382685 335.6959628217594 -1100.150911580482 88 88 88
250.77184987132983 248.92258685934794 -772.9441887653907 88 88 88
-158.10419757437725 151.92847799055778 -781.4436263030796 86 97 104
247.8502588197983 51.53301295367168 -607.5997178255413 90 91 93
-146.93028901387194 107.8934048821652 -666.2868093962156 90 95 99
250.79705535968924 218.1867355903376 -647.3715855054547 87 87 87
-88.9160343005258 -210.5687682599234 -1264.4811869181622 102 193 213
-80.77093694190141 -117.91549708933684 -686.261258541198 107 149 146
41.11507458918253 -207.95762871283324 -871.0716817121317 124 144 136
-92.91104105331164 -243.1629025428033 -1185.0014213063703 106 139 154
-19.336681247682577 -75.29927820591571 -394.9237014047123 104 121 115
-225.78131709292194 -91.55363529419711 -528.092716748531 99 107 106
-100.60235966314913 -71.45767699693931 -346.5974726267484 93 97 93
-232.3759655585489 -88.85514237423598 -505.6675066276716 101 104 102
-12.383279330059239 -270.45159966476876 -1282.300793211025 120 163 146
34.912672238290725 -174.655203285229 -764.7828800312282 132 145 130
-95.50914504656213 -279.94658608811517 -1231.3693847768805 118 172 173
-234.2972468953116 -91.80665530520497 -523.6638212892597 103 103 102
-113.5351014882055 -72.41161682217655 -357.0890749305867 98 103 99
35.85998447728666 -168.5058618769301 -786.5907811679667 119 136 118
-69.73527688334148 -62.285599261587095 -311.43941982769104 99 105 107
-61.58330044638949 -207.60267924897715 -1042.1445188975847 161 149 94
91.63515573423162 -228.83329895761008 -979.510623900022 150 137 124
-224.47806059523657 -92.25827087016681 -520.5131800607023 101 105 103
-45.39515717052899 -248.85330132763488 -1118.406459885969 127 169 164
-209.858377040133 -87.76439603687467 -531.899745277585 93 111 101
-47.99592673159326 -276.1549203895921 -1302.8313180105224 113 164 143
30.695990397604575 -112.7366812930146 -572.9646386855027 149 127 96
-22.941546015028905 -64.3990489016179 -394.0895512782638 96 98 105
-54.4754652498296 -244.4400270637087 -1145.3884131796772 116 137 119
-71.40782467865468 -62.19104990013152 -313.19609812072963 98 101 100
-27.61356800494275 -221.01929898078134 -1161.3392499543702 115 161 173
93.78432787483811 -166.1236825513763 -782.3200642778945 123 122 108
223.78542775608727 50.28736148790406 -681.7014915406816 89 97 103
228.24606553556896 54.61446977506679 -704.7872131916678 94 97 99
224.994199227146 58.76492924034213 -718.8367221691542 95 96 102
247.96121932888587 49.52012375327031 -609.1172353041272 90 91 94
228.04012333787387 57.37641556443847 -662.3844856161433 95 97 101
35.584733624767466 41.06054398198199 -521.3928498845426 92 93 95
226.97665414732592 55.56731794095883 -677.7825955565702 95 96 102
22.2663585302206 52.21757481378045 -436.9240029845273 89 97 102
257.1173660065051 65.67771734616298 -658.9735958795025 90 90 90
233.54564049037336 56.68602381012647 -650.1319245022723 89 96 97
37.48855482478564 48.40501897912311 -425.4776756998558 91 97 103
222.24510314335086 50.49220191755253 -654.8431361106836 94 99 103
214.00393803441153 61.66249894963384 -599.7957699506678 92 98 100
-27.471588333215607 87.68944680810375 -567.3193022670911 90 100 103
254.52667148847124 52.735846616957815 -601.4982353452342 88 88 88
217.26326971772852 59.31858037752314 -656.0944493910881 91 95 103
37.014505492613694 48.69147525241801 -414.7966413054868 91 99 105
231.35498333637318 52.5701697234001 -680.9762532864555 92 97 104
222.25767571935882 47.623403192632736 -637.92919658738 94 97 101
245.6355620550335 40.770818945050294 -575.8744079658242 91 91 90
41.29917291263381 50.559837831061486 -491.9140746414757 92 102 110
29.46708071925468 43.24356628428625 -390.37265252554823 92 97 103
248.69981260554204 46.74307031532791 -585.248398425018 91 91 92
193.1196230381983 54.1716323966657 -611.0480626982624 95 107 109
251.66608458181622 53.84977638936701 -602.9778131761885 91 92 91
242.20426544241462 52.224953089955804 -581.6341686911449 90 92 96
-4.44695474668346 101.89058376062249 -659.4107548678744 95 94 96
250.331668298527 56.63270347590006 -583.2261354900427 89 91 94
230.11879112847666 39.15861438081158 -669.0404008056773 93 97 104
225.5664638654423 45.84760510583991 -652.7166815537462 88 96 103
245.61139410030955 39.22966994034921 -590.109266018856 90 92 95
228.0636407584317 44.751452125269026 -661.7232818541008 94 97 98
39.34510603543529 43.78254550665608 -624.34223444849 50 174 174
236.8749097816542 37.202861627922196 -620.8956232426046 92 95 99
45.85733399225252 39.812257398274504 -449.1584555027955 92 103 112
253.14917667091316 35.53646407287397 -587.2278819199668 89 89 89
242.58160878830034 37.64319584079272 -594.5468219667216 93 93 93
245.78924372681814 36.49966909814975 -578.6024633062743 90 92 94
246.27881547997947 42.242994369589965 -596.6898432119217 91 92 93
32.56223984745236 21.742424161363548 -541.0119049366928 90 101 117
-33.96169365851628 34.68489161079346 -313.3368200547551 91 91 91
219.5444210578713 46.2026654293 -719.4060857083048 89 99 104
246.79136100309512 37.8314543761378 -594.4416919402946 90 93 95
97.37370285885642 14.904449294962193 -398.34956397310555 57 171 171
238.57891030353508 45.26391874918245 -662.7545605256796 94 96 97
245.5543974475941 44.63139801090689 -573.4566081854879 90 92 95
259.6222137152147 53.985924572102306 -641.6529702018765 91 91 91
254.01926930827932 38.410776288975995 -557.3576302139187 91 91 91
260.6550574477078 38.949791403473384 -599.6432014558501 89 89 89
11.490314739544772 26.419599893325724 -318.16536751556794 87 92 96
-33.76028113857822 157.50978074550636 -511.36609983541587 89 89 89
250.72286713112115 239.97552563682035 -765.7148738666881 86 86 86
68.88053070041003 232.35026139846693 -821.6037726197854 121 126 126
245.86804272625022 173.340679727371 -680.340456623408 92 92 92
28.2440300734345 205.30054204567506 -680.7480559553337 123 132 134
-3.519508268410547 191.4545219751618 -570.3530289939949 100 112 112
-273.23799225143887 -199.41835298957955 -788.6941583448797 111 132 113
-302.60664497157535 -166.29702269127569 -672.8647594337795 105 116 111
-279.57635331172565 -160.27782611129322 -617.3016946213102 107 116 116
-201.97049946200093 -132.01747830754033 -635.6055455730792 105 121 112
-97.54369777280732 -106.98614172502121 -380.98990287660183 113 121 118
-297.5987241843212 -163.0369267567197 -641.071527633176 106 111 115
144.90582939944835 -251.98987636676878 -1013.0668807787406 131 137 127
-37.634656989875566 -111.10837267517155 -382.7998659017015 116 125 111
-43.28726620600081 -273.2673814577111 -983.757033323104 118 139 132
67.9082374644701 -192.72763370758275 -949.6981494897428 115 109 127
158.65063594678642 -222.6478516451429 -1053.76181924978 137 127 123
-300.83916377068533 -164.775230818795 -674.1316258351317 108 118 114
-277.38936456844647 -163.90969655617002 -633.0368860113342 107 119 111
-304.2628738863218 -144.82558464334673 -574.0414459810482 97 98 96
71.9838074970789 -287.7760150580284 -1155.6230384281266 182 145 124
22.307015713165654 -88.88758986062001 -330.60990862927395 104 117 116
-341.3530497488894 -210.52379072258856 -893.9750071796399 105 121 105
-30.670337048280842 -276.2154811681837 -1052.0188475041814 130 148 133
-322.47952325688465 -159.58500513647434 -654.376775482212 108 113 111
-256.2254719379865 -118.33799275989875 -499.5817080553601 92 93 92
34.576128660973126 -71.38058608097609 -498.76484254890136 93 93 93
163.3967727928516 161.3015780197685 -850.0405523430516 91 97 110
61.041989809508166 110.98102744441024 -453.35794071014743 100 103 106
237.36302556101927 147.7142605883223 -658.8957025821885 90 90 91
2.2456008102405605 92.71908086741195 -327.15491404991843 89 89 89
231.2233447463193 153.10577459573273 -674.1532618671463 90 90 90
154.78095264199524 163.77653101423374 -791.8271759840289 92 99 105
181.41512966962526 143.21906927143436 -635.6445718801278 90 96 101
263.3854797997128 149.90860408441694 -663.9426737858802 90 90 90
246.41338736014148 153.9008480263529 -750.015432825325 90 91 95
236.4077612301298 151.6017468397381 -714.7898844870016 92 92 93
114.55654275730834 130.35037088940936 -553.7205747755172 99 104 116
221.62302476417153 150.13961352671961 -686.8953264389368 91 91 90
235.27523303137394 154.71570900936342 -705.1156298607326 92 92 92
237.54320769009982 149.9028503723188 -716.8448244002223 92 92 94
240.94634955533942 152.00218864177998 -736.1429757116903 91 91 91
231.9477368369309 155.0421123377475 -727.1038756497682 90 90 90
243.50191509313703 148.9274999931408 -687.6899276125278 91 90 91
268.9792239968591 153.7695732405372 -665.0860043124324 86 86 86
230.66389035165685 153.3060725148936 -677.2786755617894 91 91 91
223.20760814024973 149.27281613883747 -687.0242202425934 91 91 91
233.6117507567238 154.4866154036616 -707.8079276713806 91 91 91
228.20480964228284 146.02383282903372 -710.1591680912279 91 91 91
237.02665615619253 144.80982404283122 -620.4714694978018 91 91 91
236.2586294747466 152.53182926805357 -734.7506908208805 91 91 91
235.14892638948538 155.89682279777912 -717.4336747783091 90 90 90
-29.287964802924122 96.99210688094186 -368.94899959431393 90 90 90
247.69383869915657 155.37283486824217 -705.6686997286906 92 92 95
268.5465103268286 153.72714493331745 -661.1922598511617 85 85 85
240.5881972156674 168.2377183768999 -743.1131809105755 91 91 92
226.55797575596392 157.78832306827502 -705.6785167325852 91 91 91
268.4296177250026 150.9683539195768 -658.2786772180262 87 87 87
231.1352076525331 143.5544671753495 -697.3040213669567 93 93 93
253.6212544277492 147.20342571395702 -641.0968387014623 91 91 92
243.00591685279343 153.53308289831335 -708.2072100677054 92 92 93
237.61146341016868 150.9899190564255 -710.2086909020708 92 92 92
259.2707471681428 143.84304302657296 -648.209109286318 91 91 91
230.89582375719692 143.27670713602868 -674.3834209937786 91 91 91
-4.949894657308818 132.1439834416965 -898.6438877336443 81 118 120
-58.75774392714197 107.21426913179158 -888.0423643050344 85 109 136
-35.385686306589434 84.97605101927834 -339.96046984881536 89 89 89
50.45903451647709 45.93845282777393 -1344.8248627315943 82 179 186
15.471030858599349 118.48321241161167 -1007.518387114256 80 174 174
-22.06055020005965 120.61704966098975 -889.8217134228637 89 119 146
-11.545058648417495 128.67663569506382 -1008.4264743027384 82 175 175
-39.71193862950962 90.82724575935873 -998.1756158951032 84 125 153
115.93570968284595 150.76591152558996 -1136.6769468521695 96 110 117
116.0332011292136 111.03304356131974 -721.4822043346591 93 106 115
61.33885058922513 130.62947031072127 -926.1248905620254 93 110 134
215.97406495278582 142.18377723621387 -702.6286506581357 91 91 91
220.1511145714485 144.89237553527352 -730.155740709317 91 91 91
264.01322607001055 128.39976545339042 -640.3423125303283 89 89 89
227.77687078185875 133.19842449720045 -721.7805628144157 92 92 92
-27.687362334234223 87.15294130923613 -574.0647567252424 93 102 105
220.1411662764795 135.0639922825224 -682.8624215117067 92 92 92
262.90018681412425 96.96809289530006 -571.6452339799293 86 86 86
267.07189173382 127.99639672517095 -648.0345001746559 87 87 87
156.1087040331545 160.15695629936468 -854.3772549201193 94 101 103
-196.84969403452564 41.52569458352227 -547.0541589771159 91 91 90
239.36748301994194 148.45629122482615 -751.0846306366398 93 93 92
233.54458811590092 126.96408336536805 -694.9838619436342 91 91 93
211.8816071346719 117.51518289714315 -929.5098154710915 90 100 103
252.44129958478067 117.22466002571966 -623.0600654170569 93 92 93
234.94459457301295 117.39323132278449 -634.2032639969475 92 92 92
0.5196533025713137 58.301210184538505 -526.3702924000518 92 92 92
-34.87443280099262 64.11178686771552 -644.4360340641091 94 94 94
-45.91650592325395 52.042687911925455 -477.9661406525537 92 100 103
220.7888147808654 141.80166245305787 -710.3834248795429 91 91 91
146.68018100906653 81.66738864466467 -573.392488722196 62 129 160
-206.65767653398413 28.8188717150172 -505.9202125766686 93 93 93
63.36005436482303 89.78328811046262 -715.9031845965783 54 173 173
244.66522719195103 117.6697568057858 -567.7166482268926 91 91 91
15.977713467031819 129.7199659631821 -684.6192138559254 92 103 111
18.330626587970116 83.67581134295756 -568.6615019052592 90 105 113
260.2036129881693 111.22165013131965 -616.4185067618967 86 86 86
239.40860973356075 131.33671166188606 -672.7114075777893 92 92 92
-18.48603895741897 60.87526010997787 -635.902392573689 91 93 95
-218.39444545187024 175.00481932683567 -573.7217852385515 88 88 88
-215.43864742843098 186.22727116423312 -636.2750279102659 87 87 87
-407.0905540415606 -156.79608816041065 -1054.3257246249505 108 112 108
-14.441397349036734 107.00439897641218 -424.03200158807266 92 92 92
77.35180055927867 9.179919039804892 -419.62128256109423 95 97 110
10.619784124766412 50.79439826044583 -404.8292722386532 91 99 104
237.41901036798367 120.98642181551689 -535.7719072171702 89 89 89
216.13037040813137 144.19807654305535 -707.177789766582 91 91 91
264.1929351832822 128.05928733843507 -646.2082561266611 88 88 88
-76.59474080379265 -92.50274113742007 -1337.6565151131629 70 202 209
36.08859011856127 -33.13015863371238 -804.5440517596919 138 148 139
-72.50934276239859 -137.13506609699766 -1325.2508291038448 71 189 210
-98.84089472002456 -32.63837144181442 -1142.3153297914723 110 141 156
81.87441724005149 -79.65782724090313 -892.5835945041217 92 163 238
-20.084042431292474 -38.61786539922081 -619.8376184961459 133 123 127
160.8737979146017 38.15635897980158 -905.4052339667134 101 135 133
-310.2554709887759 -232.1386773881095 -832.2743593491781 113 126 122
-311.50932019178754 -178.9557116894503 -725.7719000294182 109 119 114
-99.00000851349232 -113.59211892589337 -378.1061471720025 106 121 109
-404.29015455725227 -206.08893145110062 -751.3468742996537 94 109 110
-294.2138026190752 -182.11765603838683 -681.0494059053985 115 118 115
2.353084546866185 -68.32858012033338 -333.9944988305987 109 112 108
24.933029283451816 -99.28142178191808 -615.1002598079363 112 117 135
-340.0280812940199 -173.57985762592398 -617.9921134660603 98 101 98
-228.81898691507598 -164.37105339681136 -561.3041144903166 112 125 115
-220.28347306876486 -142.82006899631833 -471.24294929141627 104 114 106
-270.85599212897876 -130.06125071437162 -642.8777486985239 98 106 101
20.86268579880992 -25.889333588018484 -455.30059693178 91 91 91
-78.59476729371994 -113.1075400909435 -356.0335293254036 105 122 109
-187.42485012122208 -147.1868529172291 -484.4753055106022 113 129 115
20.83982046823259 -81.21191340405332 -570.5831868974557 109 103 104
-348.19440186127997 -186.2023927172873 -687.510205954283 99 114 114
-374.4834830056259 -188.82341489686937 -664.5647429617993 98 100 103
-289.4999228830533 -137.66394541935304 -653.2675282766372 106 108 104
-218.1025136051329 -40.97353882943731 -539.4346899951529 94 97 100
-42.74444099969999 -106.3604070397171 -316.54065666810055 105 112 104
4.592977884126782 -53.758526638145526 -503.13082132146735 103 115 109
54.85124310937674 -40.62377784837335 -516.0769089091167 151 105 82
-348.77801971467284 -176.4023438097528 -612.8932797349028 100 100 101
-288.34607573615665 -160.82250533282502 -537.3099204574273 100 105 104
-343.5603916666745 -187.03140018517087 -661.0771137155106 96 114 108
-287.2180193093871 -165.18457449350407 -561.1153562641109 102 113 103
-396.27414540023824 -203.3790714572287 -704.2988916738775 95 103 101
-116.74438390939966 -16.950449662941352 -691.4971194897128 95 126 135
-202.15464308072265 -144.1979562315865 -481.4948736167257 106 127 124
177.79880359442058 -68.66198275445197 -564.3632659122404 172 108 86
7.747129484342338 -32.38949816251054 -461.60439044044506 90 90 90
-313.6125401163142 -176.27267591422458 -653.8548221401652 103 112 106
51.32993103614167 -40.85029023760709 -557.0818715200301 150 109 81
-374.2400770939915 -180.05837740226292 -607.6975178342973 93 93 93
42.466120602011614 -131.79016084089614 -466.9035402464905 98 96 97
20.749317776512342 -33.45990826260537 -674.7486392601886 76 148 176
-385.47727409234574 -191.4366168836851 -662.8722563210239 98 99 98
-379.44916710518106 -177.7516642292626 -629.4848342712493 94 96 97
243.55590747227671 -17.465008462811756 -561.8835467235488 91 93 95
-349.25360751237326 -178.60082169463328 -615.38798611792 99 99 98
-387.6907702737363 -197.45251866107048 -658.835779414525 94 94 94
-149.09179653042054 -103.41622346365197 -386.6804031296035 139 103 110
-409.0260654127386 -204.39875108232008 -719.7832668395824 96 106 101
-83.26172169688331 -129.8265546437117 -514.2266685760874 114 122 104
-321.5679111400334 -152.35990844780682 -552.8177637534383 97 97 97
88.30312549450159 44.92978686258698 -485.04896500495573 69 170 172
-129.0325446465793 3.257319575295785 -410.3149127662715 94 120 110
183.1558431980353 243.6739564037407 -795.984998571829 88 97 101
163.3640257473523 263.0940246557876 -849.0945306218723 92 94 96
215.92394776071097 307.37258804259346 -1081.7513395128099 94 93 92
182.4382854904985 273.45526557004183 -928.8399823537159 92 94 95
153.8854491061869 239.03856045112246 -798.8085432139721 95 97 99
163.43707055875456 238.33910168167506 -770.5308955395908 92 96 99
232.5245786441062 220.04873153322117 -730.992117410482 93 93 93
162.0303112368719 223.29810798861638 -676.0989179731199 93 93 93
169.6077463899443 254.90045854954957 -838.9593635787941 93 95 95
242.08400551576165 203.18949046343738 -654.8768852405602 90 90 90
167.69328380859156 257.34258163538186 -846.7088553389308 92 95 96
168.4543263651163 264.12081043579224 -860.1475778079928 91 95 100
227.75059727710232 237.24443579382924 -811.9573356290645 91 91 92
179.2005803878549 246.47112340031427 -797.9330984017508 90 94 96
241.77443918443953 213.13949194156123 -670.3915930320688 91 91 91
169.01814980591413 255.689848257733 -838.8962864833404 93 94 98
237.172789931649 234.4271012311846 -758.5971990945488 90 90 90
194.85024184091404 232.2150753974937 -783.6750860049151 93 94 96
230.21705161179017 215.1463065912307 -720.6934085460055 90 91 91
160.4429605012876 248.5760815599291 -797.4107897322515 92 96 102
231.16888415122546 215.3610248492011 -704.9263624205444 91 91 91
122.2360082346712 232.0964937261411 -741.5131289575817 105 111 114
229.7502995909714 214.92515525740114 -719.7844809914765 91 92 92
247.24728901059132 224.3985512721975 -726.419294462379 89 89 89
239.27326892673392 222.71753743836177 -713.6177413989933 90 90 90
229.32081540026252 221.58998925743697 -705.0047956971041 91 91 91
268.8675906569175 206.0199391959626 -677.7717111113751 89 89 89
251.37470847082176 237.64846608999744 -788.1951273609932 89 89 89
249.61819218283892 221.79793504588642 -693.8503361403891 89 89 89
176.194344329724 224.17522334864628 -715.1100879382655 90 94 100
160.01755106326937 238.78101400907823 -744.2157086766562 91 91 91
173.76259318394142 262.987558515666 -859.2933493194131 91 94 97
176.5445636468434 254.98386416915372 -815.8075933860193 90 94 97
243.51282354203317 241.0116439663123 -810.1844203597108 89 89 89
158.71912962122585 233.58289167147672 -751.5788231861732 92 93 97
240.28678721643186 233.31636572277552 -760.5474463793643 88 88 88
183.92577297363079 254.39402050545726 -832.8694775937687 92 96 100
219.43639610445436 227.34557840994995 -749.5881394294977 91 93 95
150.46680044344396 253.8461080909363 -819.5366589034336 90 94 96
239.2959800223942 220.94669370430384 -722.4105716433489 92 92 92
151.6652862910563 262.31821553787745 -832.6103137705086 90 93 96
258.4193777877615 207.2623051816697 -678.8737388570846 87 87 87
230.2675057012629 217.27032653735324 -702.7426426985184 90 90 90
-37.58200133427222 28.485408544240975 -747.3384213565669 59 181 183
-154.99494565770658 145.69618946021035 -720.3554211449932 93 94 102
-76.25041753474416 -184.46430248538542 -1182.0029349788028 104 189 209
-83.06207408885552 -218.166457197654 -1232.8317480964697 119 167 184
-122.42234188393007 -265.2536461734007 -1370.3531437108873 125 146 129
-67.5821703651575 -242.0753090622261 -1127.2622869463123 96 135 144
129.57286370474768 -185.48269735519867 -666.6667736099953 113 117 112
-239.51547582231586 -106.5240838690759 -548.1200069864317 97 106 106
-244.7650091326702 -93.01497650055211 -499.9911229365065 97 97 97
-83.06744846296127 -287.8495189253049 -1155.1372807455318 126 148 129
230.3211681227672 -240.8249215947313 -895.8327975613079 108 113 105
-221.21648077055244 -103.18546318852955 -530.0579958060528 103 110 107
-204.698199702123 -130.0726298937355 -792.6970345632983 105 119 115
-273.1117345732043 -89.55390260416488 -483.7723240270092 95 95 95
-83.55960290619359 -256.6091389592316 -1114.4407588913532 129 168 156
222.84844151659865 -227.9296250034069 -960.3522530996017 116 124 114
-110.13133087952798 -72.705749691663 -361.92263160354065 102 101 99
-227.00834983058581 -97.40951454680554 -510.2966955439782 105 104 105
-212.43580217057064 -103.96061733209064 -580.0257286905776 106 114 110
-68.65287479221601 -291.9955503388205 -1190.1629459475607 126 173 172
-34.642831086427975 -64.48037113072871 -312.3995270219465 103 109 109
6.459234758778933 -155.02919084923514 -569.5590272188118 100 105 96
-256.9783995659636 -94.20320815619199 -496.8744528199202 99 97 99
-40.64682466310087 -226.93143106795526 -1043.0582726962284 106 168 149
-244.1748926498174 -91.63556787790733 -501.7859025614963 96 99 97
1.6268313886278065 -165.26434257928423 -821.809970268924 194 185 132
274.73033322438505 -241.85521803904177 -1010.7759842776541 108 123 108
-76.34319239791276 -227.48129912301627 -1046.606315452211 135 140 122
-185.34974985700487 -89.97445636854331 -486.36694883049506 104 135 141
-91.87679664312047 -62.68914858566585 -320.5106544415477 89 96 92
-92.07051521582046 -275.27301251632014 -1206.0711461289432 128 169 175
87.88475531671195 -141.90346501310137 -761.7431272838569 121 144 155
-144.32637474769274 -81.22726806670968 -412.0707328427224 143 117 102
-69.64523929631557 -213.46543154289043 -950.1371793570908 137 162 154
-157.64109241042678 -83.99053100265289 -435.59081535753626 97 143 145
49.89510878428112 -170.90037058288323 -812.684677461611 118 138 118
-38.9357402333341 -338.8665428206523 -1246.7062586479024 114 150 145
259.0725081298866 -268.3828158162413 -1071.5104508901481 99 102 95
-67.35443119410583 -225.73569565522888 -1091.1083011548242 135 112 101
-59.33476177901976 -270.730010552462 -1089.2277236836321 122 143 130
25.258522858707963 -152.4038232867846 -741.6255924348351 187 126 79
136.6478001356074 -196.86723751119536 -704.4277920845916 124 123 113
-193.6427771354894 -90.07757030324383 -499.24559134893593 104 114 110
-88.23895938585163 -253.3256770292711 -1142.7872440783212 129 171 166
-25.071248690915056 -57.19378259690552 -362.95269430079765 93 95 97
-100.19678982554605 -70.81915754853537 -345.50228714226637 88 96 96
-73.67953059911692 -217.1361882732365 -924.0629872201937 135 159 144
86.80090587137444 -144.81771447297277 -704.8074582485169 113 146 156
-274.6500970675503 -104.95912090139714 -501.92231082729336 95 93 92
-76.30130065114662 -319.5875370575924 -1381.1774053057645 121 178 175
-7.794392265110105 -116.6978978345838 -643.6696911594609 102 103 93
82.72740090106326 -312.6950374459942 -1384.1845813986583 134 177 171
-278.9813185645252 -95.03243287532456 -486.7650053044182 94 94 95
-53.20743162600944 -80.81621448651126 -454.338639573902 111 114 114
-45.36113703476215 -69.27788791815689 -319.92811101191467 104 111 109
21.760677114250342 -148.69553759972518 -757.5532160388666 167 114 66
-279.22186639368243 -110.1384278110756 -515.4874108933782 95 94 95
-74.68544685200074 -267.13316909415096 -1148.1865532064826 116 176 161
201.00755207351943 -217.05083693828584 -824.3820124382542 109 111 104
9.525517461280458 -158.16363478374416 -818.2102857275233 154 127 125
-64.09377825404933 -70.09901093873533 -317.6346437105558 101 110 105
-68.6554765655565 -67.05913878137581 -326.808703609694 100 108 103
-53.21621215652108 -248.15338918507035 -1060.8148366358996 120 171 165
83.6592037729719 -147.66258622661786 -696.4951390736496 119 133 126
-267.43490700215773 -106.69379144777938 -491.2250180386336 90 90 89
-29.702036200567008 -46.52324481976243 -303.06786854788106 92 92 92
321.7412419231956 -267.7516061946051 -1089.3055263489864 94 96 91
-44.06919139199286 -131.4761914238062 -643.1742177597747 118 127 119
-286.4182339099816 -91.1958525355779 -494.2154278073277 93 93 93
-273.6389294124527 -106.44819270922692 -490.45340043739185 94 94 94
-271.7613023543887 -93.19359546587398 -477.31215767393564 92 92 92
-51.55101490423189 90.19356903269208 -316.8136201891244 90 90 90
-46.742108825971854 45.04643827375621 -318.76600146038277 91 91 91
225.9766606249172 76.64297919256988 -686.3959459700333 90 97 100
223.03860584512245 71.10837077582448 -675.9054516140216 89 96 103
219.03762828743925 72.17163053051947 -691.055796410583 93 96 101
213.3727401651788 70.9371715772202 -656.286073693381 94 98 101
232.23647868039174 67.55069868109454 -641.8529848455418 92 100 103
156.87012001374703 62.32085317196743 -568.7372361363656 94 109 118
247.63259961363326 67.77461581817289 -613.9043544039341 91 93 94
228.45959756266018 70.85963236766639 -630.9548428437715 92 97 98
-343.5410399503831 -138.0856340575549 -756.6592185568966 103 110 105
80.37764316165793 56.29460758470009 -538.7370312517596 46 172 172
174.94214889254985 66.99563990103232 -585.6909539718051 92 101 109
170.50307976714066 44.05310987237727 -549.462354165104 160 157 158
7.750532312133231 116.35514670544428 -687.8338123460142 93 106 122
-31.413036398311277 43.915717073193925 -301.99837445109324 90 90 90
39.48669539742704 67.39385496621763 -301.65547042554425 91 94 97
249.87867632943187 65.0171759076846 -606.5397012283622 90 91 90
221.66704643310004 67.96409478227054 -648.3431272267384 92 95 100
30.477297578055683 75.45610791554475 -587.0510937331601 92 106 118
217.4945414753197 70.39555657835406 -677.2704341235465 92 96 106
-87.09121460258054 120.23077244425014 -755.5415946508663 92 105 114
232.29073015413843 95.05678425049064 -722.6500305216492 88 95 100
23.540926984089793 78.77055403405903 -580.8709175332767 89 105 113
223.37661270844237 64.17432123876571 -655.7379548787857 93 96 101
32.328222483796324 69.76301387364697 -562.2252415567823 90 106 114
245.81278331938452 61.44179606397624 -591.9957229243041 90 93 97
97.40905514667381 55.89023171797488 -516.6079397002948 93 116 140
43.8622182246981 58.39799024510897 -472.6521941672302 91 102 107
249.93800494110366 66.87211014626328 -591.7962295187527 89 90 93
165.05668692450485 68.9695192459566 -602.0632645624813 92 107 111
48.24687737269893 57.867194318745604 -554.3554017196589 85 95 106
85.69939737930325 62.93740897272785 -367.81717603619785 86 101 109
222.55605599541582 75.74161345633647 -665.708655868591 88 96 98
257.4852478343184 89.47742058205328 -555.8410418749069 89 89 89
261.30233829074746 55.28340635829845 -607.3916136981488 88 88 88
-65.806283397132 86.6489824942878 -524.7126395757165 94 99 101
247.39770680508798 64.50170699709928 -601.140035743405 91 91 93
-31.784456915829978 46.3811905195636 -303.3216765249354 92 92 92
-152.95860768457308 137.53945230135253 -624.0187074073117 88 91 97
194.12798242585203 50.01050164123808 -497.6793136768531 157 157 157
259.478554895542 60.29896393400232 -602.201388842888 91 91 91
85.12591500415488 75.40948490218712 -471.5312288400154 83 108 127
-29.23495138022507 70.79906919030935 -450.07413296318225 92 99 102
235.620111818476 27.47212526380589 -569.5877569160891 89 92 94
-197.27985021433258 -41.18585199427271 -567.3606702041045 98 99 103
228.3619545881792 55.050487526647686 -663.0232912921188 85 96 102
69.0124001532658 22.534276806469776 -645.2135645586121 74 173 173
33.46080487299797 21.874358347095125 -535.5498502940206 91 96 103
204.52886223609102 77.13113900443324 -649.3449609051636 87 103 113
-90.06339729084303 -15.81447261100346 -870.4257782460313 131 138 123
75.39841241102307 -19.45778458872432 -582.3467450066498 159 159 159
36.957919951684886 -5.117041622187611 -606.9399173840518 85 154 158
19.450181273766688 12.681747541762586 -629.0085894525648 64 175 175
249.87360855438652 31.009930149199878 -584.6626454383547 92 93 94
-203.45577158639617 2.3038773991606725 -607.7382362008633 92 95 97
245.5062051057799 5.420348670034208 -581.8718226179315 91 91 91
-195.4977196362637 -1.3520118549020168 -577.3158928514938 95 99 104
-13.404036709649276 12.333932350931173 -451.8552579262447 92 101 108
242.72126129897794 30.37487099092878 -579.5957515108968 91 94 96
12.679013717057273 -12.47936215826455 -559.745045027126 89 93 99
40.79967689753883 5.255681058468749 -623.7182983885424 71 175 173
142.4254343912292 9.728770950731036 -428.9868021019461 111 127 115
17.9102910885845 -21.003434127308676 -504.5697153064833 91 91 91
246.89464311342113 31.855547581180797 -585.2083692433913 92 93 94
55.16791196670536 -20.824026706976234 -569.9772175162398 91 135 158
-438.3665152462746 125.71949756280227 -808.9175186387054 85 85 85
255.09653679741928 42.01536448220512 -591.1076546101012 90 90 90
156.3874684075162 216.4954863452071 -808.4671592119392 88 98 100
193.1569771196986 212.36876210964016 -811.8411859345437 89 95 100
151.66567694821887 217.8795515784734 -803.4850787443414 91 95 103
220.88723069058796 206.2768732697894 -749.4376816044445 90 93 94
229.82648881422278 206.9151565285208 -733.0887804659219 90 89 91
243.42524556177506 179.2299645222742 -632.8971072783938 91 91 91
226.01230735533528 196.62636910846885 -738.8869830530878 91 92 93
171.2953476788403 198.5623715228058 -771.174137570163 90 96 99
155.118883155511 224.7676953884466 -840.2577481733101 90 97 103
159.87014573541674 225.3108201811591 -842.4013859179265 90 97 103
199.71621794319992 203.3995303301206 -694.8478100413594 91 92 94
237.06262826754252 204.46442877770212 -719.8550790466119 92 92 92
234.46997955946188 205.69110664067352 -736.7651731516448 91 91 91
253.95132664372352 184.9891860323179 -658.2131771821757 89 89 89
-35.76986554153318 109.17671050379882 -326.5003757525685 91 91 91
230.25118851317535 199.7786580111487 -718.2675567816339 91 91 91
218.01459413640634 204.58609941004596 -765.6694647144132 92 93 96
126.47298729680051 204.4757836653137 -707.1911259084366 101 106 112
229.45843550314345 188.3018959073691 -695.7514906537905 91 91 92
112.89532018821349 197.5636194922597 -698.8802358832372 110 124 128
91.20549589192184 170.82778482723148 -542.4371406404362 135 133 135
162.81126905786164 214.76000935514162 -799.2141838850564 91 97 101
240.447838615857 235.08579499947808 -898.6541588096039 91 91 91
129.1947638139727 197.1955495327963 -714.1211013396432 92 103 116
117.04095493754576 189.83877240129175 -635.1413133580797 124 123 119
237.81582528468473 194.88739127318968 -714.419849387629 91 91 91
6.223489564365778 154.8355589893863 -471.2212387326322 105 108 110
215.61373713652327 207.21853847969828 -703.7721973740479 92 92 92
229.865461066551 194.20594412303063 -722.69457031509 93 93 93
258.288125248009 188.0642489520838 -641.4540116842835 88 88 88
234.1306078818569 193.25607858382295 -677.230640540185 91 91 91
152.09570348275443 213.98237266527045 -799.6494156735328 90 95 102
142.1721134906344 217.25158586783056 -782.1808848818757 90 97 103
201.0344821534058 193.7919393143605 -721.4735189062665 90 94 100
235.49791621217906 188.87165676854568 -709.1645274333489 91 91 91
212.59176919440165 198.39687087833778 -714.4013555980632 91 92 94
236.11191962443039 204.73065333602955 -723.5284299497976 91 91 91
218.13087765783132 195.61313898580016 -700.3435229624251 93 95 98
81.94722469497894 198.15087248720403 -678.4545700146701 124 129 123
83.10157688193203 168.89500068554224 -596.2212823012776 126 127 134
256.00368657673175 221.92932102324974 -737.3974033362481 89 89 89
79.43115997693315 163.56560049910192 -543.1930906363948 133 138 128
237.78791506759342 209.1128478554147 -754.0676356908734 90 90 90
34.541743798059656 167.28038170782685 -574.5563847709125 119 122 121
239.4231549605925 195.56007197951817 -714.836208930838 90 90 90
240.29577877947173 196.33053513551877 -734.5830471784448 92 92 92
245.3477773952677 186.85674593681526 -664.5041745357721 90 90 90
236.41496914112577 203.63774563863421 -728.4779409509259 91 91 91
278.3135875123328 196.03912485562765 -676.7352592325358 84 84 84
208.94807050986498 177.66698802652652 -605.1766418803163 89 95 105
242.86130931801318 194.60070911768372 -696.8222136775063 89 89 89
151.7134530498749 212.30180090219145 -766.7358793629257 93 98 104
238.920446745735 220.61592920294817 -823.1506869237733 91 91 91
229.48899389188313 214.52609037800192 -745.9299213170885 89 89 90
22.409101069659755 167.93906875334716 -554.8348245672202 104 120 106
259.4549465623546 189.30685433356263 -658.5723138471203 88 88 88
-24.01592760700943 113.63086563009054 -346.1184029061959 89 89 89
43.75823694394998 153.6250430281292 -481.13921350237 104 112 115
131.7679346299422 207.0618774898254 -727.2322330742631 97 101 108
229.43234489220282 181.9664356900011 -627.2906989849876 91 92 93
243.1478680345062 205.4179877394549 -736.3816205679507 91 91 91
-30.022996043886053 117.84582777856141 -345.05680846255916 88 88 88
27.045983000966245 152.47314648714993 -483.4347652451722 103 114 111
265.83658234295956 197.02438433128776 -706.9841696610615 90 90 90
240.15182950971385 184.48847601983252 -696.5411881857895 90 90 90
237.01067502991373 201.3562590085421 -708.6736761274826 90 90 90
62.37583126032622 156.18557239475143 -502.1427978986984 124 126 127
260.4246056084818 193.01397403645387 -662.6149451623867 89 89 89
242.00359788449538 198.07257086762883 -703.5030327117815 91 91 91
-25.394899537481265 118.8453846276644 -355.60467705878455 90 90 90
333.0709873928971 198.98484442473875 -614.5698766737246 84 84 84
286.09709632614573 309.40842441700124 -1109.5470575854188 88 88 88
495.96525982769475 -134.6217826652725 -872.7365485440606 90 90 90
-96.33245461190437 -202.78055824563307 -1166.1253151323947 131 119 117
-82.11299772656179 -218.7502407594548 -1215.332620137104 114 122 118
-84.76987365961398 -215.5198599958814 -1321.8444210237271 118 161 173
-78.57662911228944 -172.34040096905272 -1139.614936382979 91 161 183
8.87400418183421 -129.8099199480998 -927.9320666389033 100 174 237
-157.9615682323333 -187.70159101536876 -1039.9835592121703 142 141 120
-97.68412066101881 -218.1712232010558 -1200.3497331549938 114 118 105
-110.68562240928344 -164.6628552665943 -1045.2199895105582 160 115 90
230.78699756588557 -38.238053254506525 -501.56030222904155 84 98 104
-93.26878478033773 -176.54757890232 -1131.2587369352204 165 141 135
34.970134112013554 -135.16835396211786 -793.0468422778399 107 162 196
-200.67960008263458 -132.7059318519522 -551.4178687518802 108 124 120
-115.63985576421796 -87.63871397640415 -393.98784454291336 99 109 105
-173.79474001156564 -112.6889135423475 -488.94905824847683 100 144 152
-130.24867180496284 -156.65793953865995 -785.048255249178 120 143 121
-268.3207603005462 -146.8461148377844 -641.2946297863352 109 116 114
-96.65538041530988 -94.70333174111462 -353.96561866156185 105 113 111
-228.96939359503142 -127.18004113558963 -517.0129650648574 104 121 107
-260.97601029406724 -136.08919044765122 -599.9630981114642 109 113 111
-219.97305563643351 -127.08427481372499 -644.3711897121922 107 118 111
-112.61524541270444 -106.59551209649015 -443.72055496340397 149 117 102
-333.26113166338575 -142.0252635131892 -587.0246188174934 96 96 100
-75.73869500669176 -208.96450225224595 -1144.6362825872393 94 119 115
-160.781128431992 -107.03615233544602 -451.75284511055065 101 120 118
-328.24742715796265 -135.23078560944907 -566.3318996044407 99 95 99
-78.3370678338361 -250.8078722705468 -1141.393266634706 111 170 147
-94.0891953568285 -91.09876820197923 -355.42414755666164 104 114 109
-195.34487179493385 -117.9494106515078 -476.8666495904336 106 119 111
-163.01058447306377 -181.03691662096097 -1083.5582741469998 113 108 105
-264.7890332588578 -128.70012765186607 -582.7057681009767 109 111 112
-331.83202049418446 -146.02285749354553 -576.7791533586048 97 100 102
-313.5546393140419 -140.60167312775246 -556.8575060061544 96 95 95
-132.09226220328733 -114.39913347578809 -427.86890044479287 182 112 88
-340.95379575567677 -144.9668804165826 -581.9144580325545 95 97 99
-86.41102791145047 -202.46219335592906 -804.2398868226189 127 134 125
-270.4781876941122 -139.37693321263382 -633.1848469874953 102 115 111
-264.5429250911566 -128.27341457187578 -523.3203843655988 101 107 100
-84.77788259109249 -268.85196926998555 -1134.726463948209 124 168 148
-192.74922802342408 -117.12778159155258 -477.616381215277 106 121 109
-73.61889806591931 -233.3804221162726 -932.883893290483 125 170 163
-329.8457558773115 -141.89057157360105 -564.6617654131704 94 96 94
-310.5930313563105 -131.27016470300322 -550.9217433545789 97 98 101
-118.70065869939685 -98.10147228041173 -406.2874094562958 98 111 106
-238.7179622348565 -118.58869192922228 -483.48431783552724 97 104 105
-67.80559867402617 -255.4722737397796 -1128.1044583837133 119 165 136
26.8704872059554 -92.30099581444196 -540.7951217798932 89 90 90
-99.63181488678566 -88.61216708433199 -330.2104499507361 105 106 102
-50.30869293415475 -185.5156692210607 -942.6117420358659 141 137 117
-157.68965235362077 -105.35338964352161 -415.11732527318054 91 137 137
-24.233471416609518 -59.60100736859807 -456.91200160526034 87 96 98
-92.02915501817019 -95.99595850792954 -379.3977151749355 105 119 113
-214.87937020273193 -93.27332445396839 -521.3103249884555 102 109 109
39.7680606921555 -120.53143369385958 -663.0171395555685 159 117 73
5.220097836307701 -52.251058503732345 -469.6758482208438 89 89 89
-302.50781678537817 -118.53553883692207 -523.6994533657612 94 94 94
-139.86568295229785 -96.10654699694592 -376.3001470059727 171 99 75
-319.1956135091521 -131.87089100947935 -561.0591526812317 103 99 102
276.52680775173735 -183.3836103726718 -1001.038547720115 105 120 99
-351.3422483783464 -17.07608724352697 -748.3346810859185 88 90 91
73.8591143751104 -53.714768512171545 -814.332059715746 115 116 133
-314.93071603744846 -120.88097529791756 -526.6231489017796 93 93 94
-12.976963437216838 -36.02887972657548 -396.3465203956554 92 103 107
199.30181534876627 -118.46862285479006 -989.1975296565176 104 108 108
-313.72571854172946 -133.85908725247077 -541.1827384251742 94 94 94
-315.86566584459956 -126.05442480122278 -540.1442593559693 95 95 95
-142.59693858774835 -92.83844355846213 -379.64066649155137 174 99 86
-63.88333128071646 -71.88522623349164 -311.79198058485485 95 99 100
196.62259264192141 -62.2375961462716 -585.5243469347944 141 156 161
166.04080241527268 188.7955888368926 -886.0288852920521 90 99 102
157.30033756508897 187.96661298398294 -821.1991337796994 90 99 105
153.8358247727956 200.42294109343192 -852.6634158290572 90 98 99
230.09808037580987 164.72842179915648 -677.6994850452022 87 90 93
167.2085483836317 192.99640671429898 -795.6070314979187 90 98 104
226.5250367184446 171.00317001662012 -761.1876134864962 90 90 90
154.0670761179875 138.38401149596984 -589.8523108372217 93 97 105
143.45208722564465 137.14055657982303 -568.5982995679954 104 108 121
174.16335622656618 153.57311218325628 -607.0823247762783 88 97 106
108.91343840770375 119.34722262359836 -439.77172687905556 129 131 135
201.34903307751205 144.06364595178422 -582.5864683550985 89 96 98
145.92488431272488 138.9532109309451 -566.2950926422618 98 110 123
236.8213839193098 185.304788703726 -698.7725754653957 89 89 89
37.78433921225712 133.18255524212077 -551.2287124916486 101 109 111
264.80836282818944 145.44942910014606 -635.2229178962036 87 87 87
237.63840036857547 181.013189691376 -728.4928344696883 90 90 90
147.64176066690908 184.75976685443504 -770.4986351936557 92 96 102
263.85554535502433 155.63283201019033 -660.3978021313532 89 89 89
241.47393349106716 162.8826139947198 -701.2924199246966 91 91 91
230.29544675073834 161.61241733802763 -673.6164897064601 88 92 95
264.8974513455929 154.7427523447152 -655.1549441134114 88 88 88
-12.26302817778668 106.941926853468 -328.1930648377829 89 89 89
240.30857798636458 175.71320676629153 -671.1802499660894 92 92 92
23.628247442714823 117.41504152027854 -421.63699445678856 89 89 89
208.73223990821955 169.39033396699955 -697.5995788915678 92 95 100
234.48796320939567 173.42703679834273 -693.3459458375931 90 90 90
232.05468966353692 156.29026268993596 -706.8858466097428 90 90 90
236.41818841084944 161.42433029793582 -623.9250009836252 91 91 91
238.08962356720974 190.38509045111823 -743.250981233306 91 91 91
49.61601591419098 148.11443964079814 -539.8583169632375 109 119 120
